7.72201 88.3398 2310.42
7.10425 88.3398 2310.42
6.48649 88.3398 2310.42
5.86873 88.3398 2310.42
5.25097 88.3398 2310.42
4.6332 88.3398 2310.42
4.01544 88.3398 2310.42
3.39768 88.3398 2310.42
2.77992 88.3398 2310.42
2.16216 88.3398 2310.42
1.5444 88.3398 2310.42
0.926641 88.3398 2310.42
0.30888 88.3398 2310.42
0.306513 87.6628 2292.72
-0.306513 87.6628 2292.72
-0.91954 87.6628 2292.72
-1.53257 87.6628 2292.72
-2.14559 87.6628 2292.72
-2.44275 87.3282 2283.97
-3.05344 87.3282 2283.97
-3.66412 87.3282 2283.97
-4.27481 87.3282 2283.97
-4.8855 87.3282 2283.97
-5.49618 87.3282 2283.97
-6.10687 87.3282 2283.97
-6.71756 87.3282 2283.97
-7.32824 87.3282 2283.97
-7.93893 87.3282 2283.97
-8.54962 87.3282 2283.97
-10.1931 88.3398 2310.42
-10.8108 88.3398 2310.42
-11.4286 88.3398 2310.42
-12.0463 88.3398 2310.42
-12.6641 88.3398 2310.42
-13.2819 88.3398 2310.42
-13.8996 88.3398 2310.42
-14.5174 88.3398 2310.42
-15.1351 88.3398 2310.42
-15.7529 88.3398 2310.42
-16.3707 88.3398 2310.42
-16.9884 88.3398 2310.42
-16.4885 87.3282 2283.97
-17.0992 87.3282 2283.97
-17.7099 87.3282 2283.97
-18.3206 87.3282 2283.97
-18.9313 87.3282 2283.97
-19.542 87.3282 2283.97
-20.1527 87.3282 2283.97
-20.7634 87.3282 2283.97
-21.374 87.3282 2283.97
-21.9847 87.3282 2283.97
-22.5954 87.3282 2283.97
-23.2061 87.3282 2283.97
-23.8168 87.3282 2283.97
-24.4275 87.3282 2283.97
-25.0382 87.3282 2283.97
-25.6489 87.3282 2283.97
-26.2595 87.3282 2283.97
-26.8702 87.3282 2283.97
-27.4809 87.3282 2283.97
-28.0916 87.3282 2283.97
-28.7023 87.3282 2283.97
-29.313 87.3282 2283.97
-29.9237 87.3282 2283.97
-30.5344 87.3282 2283.97
-31.145 87.3282 2283.97
-31.7557 87.3282 2283.97
-32.3664 87.3282 2283.97
-32.9771 87.3282 2283.97
-33.5878 87.3282 2283.97
-34.1985 87.3282 2283.97
-34.8092 87.3282 2283.97
-35.4198 87.3282 2283.97
-36.0305 87.3282 2283.97
-36.6412 87.3282 2283.97
-37.2519 87.3282 2283.97
-37.8626 87.3282 2283.97
-38.4733 87.3282 2283.97
-39.084 87.3282 2283.97
-39.6947 87.3282 2283.97
-40.3053 87.3282 2283.97
-40.916 87.3282 2283.97
-41.5267 87.3282 2283.97
-44.031 88.6822 2319.38
-44.6512 88.6822 2319.38
-45.2713 88.6822 2319.38
-45.8915 88.6822 2319.38
-46.5116 88.6822 2319.38
-47.1318 88.6822 2319.38
-47.7519 88.6822 2319.38
-48.3721 88.6822 2319.38
-48.9922 88.6822 2319.38
-49.6124 88.6822 2319.38
-50.2326 88.6822 2319.38
-50.8527 88.6822 2319.38
-51.4729 88.6822 2319.38
-52.093 88.6822 2319.38
-52.7132 88.6822 2319.38
-53.3333 88.6822 2319.38
-53.9535 88.6822 2319.38
-54.5736 88.6822 2319.38
-55.1938 88.6822 2319.38
-55.814 88.6822 2319.38
-56.4341 88.6822 2319.38
-71.1111 97.7778 2557.26
-71.7949 97.7778 2557.26
-72.4786 97.7778 2557.26
-73.1624 97.7778 2557.26
-73.8462 97.7778 2557.26
-74.5299 97.7778 2557.26
-75.2137 97.7778 2557.26
-75.8974 97.7778 2557.26
-76.5812 97.7778 2557.26
-77.265 97.7778 2557.26
-77.9487 97.7778 2557.26
-78.6325 97.7778 2557.26
-79.3162 97.7778 2557.26
-80 97.7778 2557.26
-80.6838 97.7778 2557.26
-81.3675 97.7778 2557.26
-82.0513 97.7778 2557.26
-82.735 97.7778 2557.26
-83.4188 97.7778 2557.26
-84.1026 97.7778 2557.26
-84.7863 97.7778 2557.26
-85.4701 97.7778 2557.26
-86.1538 97.7778 2557.26
-86.8376 97.7778 2557.26
-87.5214 97.7778 2557.26
-88.2051 97.7778 2557.26
-88.8889 97.7778 2557.26
-89.5726 97.7778 2557.26
-90.2564 97.7778 2557.26
-90.9402 97.7778 2557.26
-91.6239 97.7778 2557.26
-92.3077 97.7778 2557.26
-92.9915 97.7778 2557.26
-93.6752 97.7778 2557.26
-94.359 97.7778 2557.26
-95.0427 97.7778 2557.26
-95.7265 97.7778 2557.26
-96.4103 97.7778 2557.26
-97.094 97.7778 2557.26
-97.7778 97.7778 2557.26
-98.4615 97.7778 2557.26
-99.1453 97.7778 2557.26
-99.8291 97.7778 2557.26
-100.513 97.7778 2557.26
-101.197 97.7778 2557.26
-101.88 97.7778 2557.26
-102.564 97.7778 2557.26
-103.248 97.7778 2557.26
-103.932 97.7778 2557.26
-104.615 97.7778 2557.26
-96.9796 93.3878 2442.45
-97.6327 93.3878 2442.45
-98.2857 93.3878 2442.45
-98.9388 93.3878 2442.45
-99.5918 93.3878 2442.45
-100.245 93.3878 2442.45
-100.898 93.3878 2442.45
-101.551 93.3878 2442.45
-102.204 93.3878 2442.45
-102.857 93.3878 2442.45
-103.51 93.3878 2442.45
-104.163 93.3878 2442.45
-104.816 93.3878 2442.45
-105.469 93.3878 2442.45
-106.122 93.3878 2442.45
-106.776 93.3878 2442.45
-107.429 93.3878 2442.45
-108.082 93.3878 2442.45
-108.735 93.3878 2442.45
-109.388 93.3878 2442.45
-110.041 93.3878 2442.45
-110.694 93.3878 2442.45
-111.347 93.3878 2442.45
-112 93.3878 2442.45
-112.653 93.3878 2442.45
-113.306 93.3878 2442.45
-111.613 92.2581 2412.9
-112.258 92.2581 2412.9
-112.903 92.2581 2412.9
-113.548 92.2581 2412.9
-110.356 90.4348 2365.22
-110.988 90.4348 2365.22
-111.621 90.4348 2365.22
-112.253 90.4348 2365.22
-112.885 90.4348 2365.22
-113.518 90.4348 2365.22
-114.15 90.4348 2365.22
-114.783 90.4348 2365.22
-115.415 90.4348 2365.22
-116.047 90.4348 2365.22
-116.68 90.4348 2365.22
-116.535 90.0787 2355.91
-117.165 90.0787 2355.91
-117.795 90.0787 2355.91
-118.425 90.0787 2355.91
-119.055 90.0787 2355.91
-119.685 90.0787 2355.91
-120.315 90.0787 2355.91
-120.945 90.0787 2355.91
-121.575 90.0787 2355.91
-122.205 90.0787 2355.91
-122.835 90.0787 2355.91
-123.465 90.0787 2355.91
-124.094 90.0787 2355.91
-124.724 90.0787 2355.91
-125.354 90.0787 2355.91
-125.984 90.0787 2355.91
-126.614 90.0787 2355.91
-127.244 90.0787 2355.91
-127.874 90.0787 2355.91
-128.504 90.0787 2355.91
-129.134 90.0787 2355.91
-129.764 90.0787 2355.91
-130.394 90.0787 2355.91
-131.024 90.0787 2355.91
-131.654 90.0787 2355.91
-132.283 90.0787 2355.91
-132.913 90.0787 2355.91
-133.543 90.0787 2355.91
-125.283 86.3396 2258.11
-125.887 86.3396 2258.11
-126.491 86.3396 2258.11
-127.094 86.3396 2258.11
-127.698 86.3396 2258.11
-128.302 86.3396 2258.11
-128.906 86.3396 2258.11
-129.509 86.3396 2258.11
-130.113 86.3396 2258.11
-130.717 86.3396 2258.11
-131.321 86.3396 2258.11
-131.925 86.3396 2258.11
-132.528 86.3396 2258.11
-133.132 86.3396 2258.11
-133.736 86.3396 2258.11
-134.34 86.3396 2258.11
-134.943 86.3396 2258.11
-135.547 86.3396 2258.11
-136.151 86.3396 2258.11
-136.755 86.3396 2258.11
-137.358 86.3396 2258.11
-137.962 86.3396 2258.11
-138.566 86.3396 2258.11
-139.17 86.3396 2258.11
-139.774 86.3396 2258.11
-140.377 86.3396 2258.11
-140.981 86.3396 2258.11
-141.585 86.3396 2258.11
-142.189 86.3396 2258.11
-142.792 86.3396 2258.11
-145.095 86.9962 2275.29
-163.279 93.7705 2452.46
-163.934 93.7705 2452.46
-164.59 93.7705 2452.46
-165.246 93.7705 2452.46
-165.902 93.7705 2452.46
-166.557 93.7705 2452.46
-167.213 93.7705 2452.46
-168.889 94.1564 2462.55
-169.547 94.1564 2462.55
-173.333 95.3333 2493.33
-174 95.3333 2493.33
-174.667 95.3333 2493.33
-175.333 95.3333 2493.33
-176 95.3333 2493.33
-176.667 95.3333 2493.33
-177.333 95.3333 2493.33
-178 95.3333 2493.33
-144.928 82.8986 2168.12
-145.507 82.8986 2168.12
-146.087 82.8986 2168.12
-146.667 82.8986 2168.12
-147.246 82.8986 2168.12
-147.826 82.8986 2168.12
-148.406 82.8986 2168.12
-148.986 82.8986 2168.12
-149.565 82.8986 2168.12
-150.145 82.8986 2168.12
-150.725 82.8986 2168.12
-151.304 82.8986 2168.12
-151.884 82.8986 2168.12
-152.464 82.8986 2168.12
-153.043 82.8986 2168.12
-153.623 82.8986 2168.12
-154.203 82.8986 2168.12
-154.783 82.8986 2168.12
-155.362 82.8986 2168.12
-155.942 82.8986 2168.12
-156.522 82.8986 2168.12
-157.101 82.8986 2168.12
-157.681 82.8986 2168.12
-158.261 82.8986 2168.12
-158.841 82.8986 2168.12
-159.42 82.8986 2168.12
-160 82.8986 2168.12
-160.58 82.8986 2168.12
-161.159 82.8986 2168.12
-161.739 82.8986 2168.12
-162.319 82.8986 2168.12
-162.899 82.8986 2168.12
-163.478 82.8986 2168.12
-164.058 82.8986 2168.12
-164.638 82.8986 2168.12
-165.217 82.8986 2168.12
-165.797 82.8986 2168.12
-166.377 82.8986 2168.12
-166.957 82.8986 2168.12
-167.536 82.8986 2168.12
-168.116 82.8986 2168.12
-168.696 82.8986 2168.12
-170.182 83.2 2176
-170.764 83.2 2176
-171.345 83.2 2176
-171.927 83.2 2176
-172.509 83.2 2176
-173.091 83.2 2176
-173.673 83.2 2176
-174.255 83.2 2176
-179.556 84.7407 2216.3
-180.148 84.7407 2216.3
-180.741 84.7407 2216.3
-167.579 80.2807 2099.65
-168.14 80.2807 2099.65
-168.702 80.2807 2099.65
-169.263 80.2807 2099.65
-169.825 80.2807 2099.65
-170.386 80.2807 2099.65
-170.947 80.2807 2099.65
-171.509 80.2807 2099.65
-172.07 80.2807 2099.65
-172.632 80.2807 2099.65
-173.193 80.2807 2099.65
-173.754 80.2807 2099.65
-174.316 80.2807 2099.65
-174.877 80.2807 2099.65
-194.717 86.3396 2258.11
-195.321 86.3396 2258.11
-195.925 86.3396 2258.11
-225.333 95.3333 2493.33
-226 95.3333 2493.33
-226.667 95.3333 2493.33
-233.872 97.3617 2546.38
26.0932 82.5806 2144.8
25.5197 82.5806 2144.8
24.9462 82.5806 2144.8
24.3728 82.5806 2144.8
23.7993 82.5806 2144.8
23.2258 82.5806 2144.8
22.8571 82.2857 2137.14
22.2857 82.2857 2137.14
21.7143 82.2857 2137.14
21.1429 82.2857 2137.14
20.5714 82.2857 2137.14
20 82.2857 2137.14
19.2115 82.5806 2144.8
18.638 82.5806 2144.8
18.0645 82.5806 2144.8
13.4351 87.9389 2283.97
12.8244 87.9389 2283.97
12.2137 87.9389 2283.97
11.6031 87.9389 2283.97
10.9924 87.9389 2283.97
10.3817 87.9389 2283.97
9.77099 87.9389 2283.97
9.16031 87.9389 2283.97
8.54962 87.9389 2283.97
7.93893 87.9389 2283.97
7.32824 87.9389 2283.97
6.71756 87.9389 2283.97
6.10687 87.9389 2283.97
5.49618 87.9389 2283.97
4.8855 87.9389 2283.97
3.39768 88.9575 2310.42
2.77992 88.9575 2310.42
2.16216 88.9575 2310.42
1.5444 88.9575 2310.42
0.926641 88.9575 2310.42
0.30888 88.9575 2310.42
-0.30888 88.9575 2310.42
-0.926641 88.9575 2310.42
-0.91954 88.2759 2292.72
-1.53257 88.2759 2292.72
-2.14559 88.2759 2292.72
-2.44275 87.9389 2283.97
-3.05344 87.9389 2283.97
-3.66412 87.9389 2283.97
-4.27481 87.9389 2283.97
-4.8855 87.9389 2283.97
-5.49618 87.9389 2283.97
-6.10687 87.9389 2283.97
-6.71756 87.9389 2283.97
-7.32824 87.9389 2283.97
-7.93893 87.9389 2283.97
-8.88889 88.2759 2292.72
-10.1931 88.9575 2310.42
-10.8108 88.9575 2310.42
-11.4286 88.9575 2310.42
-12.0463 88.9575 2310.42
-12.6641 88.9575 2310.42
-13.2819 88.9575 2310.42
-13.8996 88.9575 2310.42
-14.5174 88.9575 2310.42
-15.1351 88.9575 2310.42
-15.7529 88.9575 2310.42
-16.3707 88.9575 2310.42
-16.9884 88.9575 2310.42
-17.6062 88.9575 2310.42
-17.0992 87.9389 2283.97
-17.7099 87.9389 2283.97
-18.3206 87.9389 2283.97
-18.9313 87.9389 2283.97
-19.542 87.9389 2283.97
-20.1527 87.9389 2283.97
-20.7634 87.9389 2283.97
-21.374 87.9389 2283.97
-21.9847 87.9389 2283.97
-22.5954 87.9389 2283.97
-23.2061 87.9389 2283.97
-23.8168 87.9389 2283.97
-24.4275 87.9389 2283.97
-25.0382 87.9389 2283.97
-25.6489 87.9389 2283.97
-26.2595 87.9389 2283.97
-26.8702 87.9389 2283.97
-27.4809 87.9389 2283.97
-28.0916 87.9389 2283.97
-28.7023 87.9389 2283.97
-29.313 87.9389 2283.97
-29.9237 87.9389 2283.97
-30.5344 87.9389 2283.97
-31.145 87.9389 2283.97
-31.7557 87.9389 2283.97
-32.3664 87.9389 2283.97
-32.9771 87.9389 2283.97
-33.5878 87.9389 2283.97
-34.1985 87.9389 2283.97
-34.8092 87.9389 2283.97
-35.4198 87.9389 2283.97
-36.0305 87.9389 2283.97
-36.6412 87.9389 2283.97
-37.2519 87.9389 2283.97
-37.8626 87.9389 2283.97
-38.4733 87.9389 2283.97
-39.084 87.9389 2283.97
-39.6947 87.9389 2283.97
-40.3053 87.9389 2283.97
-40.916 87.9389 2283.97
-41.5267 87.9389 2283.97
-44.031 89.3023 2319.38
-44.6512 89.3023 2319.38
-45.2713 89.3023 2319.38
-45.8915 89.3023 2319.38
-46.5116 89.3023 2319.38
-47.1318 89.3023 2319.38
-47.7519 89.3023 2319.38
-48.3721 89.3023 2319.38
-48.9922 89.3023 2319.38
-49.6124 89.3023 2319.38
-50.2326 89.3023 2319.38
-50.8527 89.3023 2319.38
-51.4729 89.3023 2319.38
-52.093 89.3023 2319.38
-52.7132 89.3023 2319.38
-53.3333 89.3023 2319.38
-53.9535 89.3023 2319.38
-54.5736 89.3023 2319.38
-55.1938 89.3023 2319.38
-55.814 89.3023 2319.38
-56.4341 89.3023 2319.38
-71.1111 98.4615 2557.26
-71.7949 98.4615 2557.26
-72.4786 98.4615 2557.26
-73.1624 98.4615 2557.26
-73.8462 98.4615 2557.26
-74.5299 98.4615 2557.26
-75.2137 98.4615 2557.26
-75.8974 98.4615 2557.26
-76.5812 98.4615 2557.26
-77.265 98.4615 2557.26
-77.9487 98.4615 2557.26
-78.6325 98.4615 2557.26
-79.3162 98.4615 2557.26
-80 98.4615 2557.26
-80.6838 98.4615 2557.26
-81.3675 98.4615 2557.26
-82.0513 98.4615 2557.26
-82.735 98.4615 2557.26
-83.4188 98.4615 2557.26
-84.1026 98.4615 2557.26
-84.7863 98.4615 2557.26
-85.4701 98.4615 2557.26
-86.1538 98.4615 2557.26
-86.8376 98.4615 2557.26
-87.5214 98.4615 2557.26
-88.2051 98.4615 2557.26
-88.8889 98.4615 2557.26
-89.5726 98.4615 2557.26
-90.2564 98.4615 2557.26
-90.9402 98.4615 2557.26
-91.6239 98.4615 2557.26
-92.3077 98.4615 2557.26
-92.9915 98.4615 2557.26
-93.6752 98.4615 2557.26
-94.359 98.4615 2557.26
-95.0427 98.4615 2557.26
-95.7265 98.4615 2557.26
-96.4103 98.4615 2557.26
-97.094 98.4615 2557.26
-97.7778 98.4615 2557.26
-98.4615 98.4615 2557.26
-99.1453 98.4615 2557.26
-99.8291 98.4615 2557.26
-100.513 98.4615 2557.26
-101.197 98.4615 2557.26
-101.88 98.4615 2557.26
-102.564 98.4615 2557.26
-103.248 98.4615 2557.26
-103.932 98.4615 2557.26
-104.615 98.4615 2557.26
-105.299 98.4615 2557.26
-105.983 98.4615 2557.26
-106.667 98.4615 2557.26
-98.9388 94.0408 2442.45
-99.5918 94.0408 2442.45
-100.245 94.0408 2442.45
-100.898 94.0408 2442.45
-101.551 94.0408 2442.45
-102.204 94.0408 2442.45
-102.857 94.0408 2442.45
-103.51 94.0408 2442.45
-104.163 94.0408 2442.45
-104.816 94.0408 2442.45
-105.469 94.0408 2442.45
-106.122 94.0408 2442.45
-106.776 94.0408 2442.45
-107.429 94.0408 2442.45
-108.082 94.0408 2442.45
-109.508 94.4262 2452.46
-110.164 94.4262 2452.46
-110.82 94.4262 2452.46
-111.475 94.4262 2452.46
-112.131 94.4262 2452.46
-112.787 94.4262 2452.46
-113.443 94.4262 2452.46
-114.098 94.4262 2452.46
-114.754 94.4262 2452.46
-115.41 94.4262 2452.46
-116.066 94.4262 2452.46
-116.721 94.4262 2452.46
-117.377 94.4262 2452.46
-118.033 94.4262 2452.46
-118.689 94.4262 2452.46
-119.344 94.4262 2452.46
-116.774 92.9032 2412.9
-117.419 92.9032 2412.9
-118.065 92.9032 2412.9
-118.71 92.9032 2412.9
-114.646 90.7087 2355.91
-115.276 90.7087 2355.91
-115.906 90.7087 2355.91
-116.535 90.7087 2355.91
-117.165 90.7087 2355.91
-117.795 90.7087 2355.91
-118.425 90.7087 2355.91
-119.055 90.7087 2355.91
-119.685 90.7087 2355.91
-120.315 90.7087 2355.91
-120.945 90.7087 2355.91
-121.575 90.7087 2355.91
-122.205 90.7087 2355.91
-122.835 90.7087 2355.91
-123.465 90.7087 2355.91
-124.094 90.7087 2355.91
-124.724 90.7087 2355.91
-125.354 90.7087 2355.91
-125.984 90.7087 2355.91
-126.614 90.7087 2355.91
-127.244 90.7087 2355.91
-127.874 90.7087 2355.91
-128.504 90.7087 2355.91
-129.134 90.7087 2355.91
-129.764 90.7087 2355.91
-130.394 90.7087 2355.91
-131.024 90.7087 2355.91
-131.654 90.7087 2355.91
-132.283 90.7087 2355.91
-132.913 90.7087 2355.91
-133.543 90.7087 2355.91
-125.283 86.9434 2258.11
-125.887 86.9434 2258.11
-126.491 86.9434 2258.11
-127.094 86.9434 2258.11
-127.698 86.9434 2258.11
-128.302 86.9434 2258.11
-128.906 86.9434 2258.11
-129.509 86.9434 2258.11
-130.113 86.9434 2258.11
-130.717 86.9434 2258.11
-131.321 86.9434 2258.11
-131.925 86.9434 2258.11
-132.528 86.9434 2258.11
-133.132 86.9434 2258.11
-133.736 86.9434 2258.11
-134.34 86.9434 2258.11
-134.943 86.9434 2258.11
-135.547 86.9434 2258.11
-136.151 86.9434 2258.11
-136.755 86.9434 2258.11
-137.358 86.9434 2258.11
-137.962 86.9434 2258.11
-138.566 86.9434 2258.11
-139.17 86.9434 2258.11
-139.774 86.9434 2258.11
-140.377 86.9434 2258.11
-140.981 86.9434 2258.11
-141.585 86.9434 2258.11
-143.878 87.6046 2275.29
-144.487 87.6046 2275.29
-145.095 87.6046 2275.29
-145.703 87.6046 2275.29
-146.312 87.6046 2275.29
-146.92 87.6046 2275.29
-161.29 92.9032 2412.9
-161.935 92.9032 2412.9
-162.581 92.9032 2412.9
-166.204 94.0408 2442.45
-166.857 94.0408 2442.45
-167.51 94.0408 2442.45
-169.18 94.4262 2452.46
-174 96 2493.33
-174.667 96 2493.33
-175.333 96 2493.33
-176 96 2493.33
-176.667 96 2493.33
-177.333 96 2493.33
-178 96 2493.33
-144.928 83.4783 2168.12
-145.507 83.4783 2168.12
-146.087 83.4783 2168.12
-146.667 83.4783 2168.12
-147.246 83.4783 2168.12
-147.826 83.4783 2168.12
-148.406 83.4783 2168.12
-148.986 83.4783 2168.12
-149.565 83.4783 2168.12
-150.145 83.4783 2168.12
-150.725 83.4783 2168.12
-151.304 83.4783 2168.12
-151.884 83.4783 2168.12
-152.464 83.4783 2168.12
-153.043 83.4783 2168.12
-153.623 83.4783 2168.12
-154.203 83.4783 2168.12
-154.783 83.4783 2168.12
-155.362 83.4783 2168.12
-155.942 83.4783 2168.12
-156.522 83.4783 2168.12
-157.101 83.4783 2168.12
-157.681 83.4783 2168.12
-158.261 83.4783 2168.12
-158.841 83.4783 2168.12
-159.42 83.4783 2168.12
-160 83.4783 2168.12
-160.58 83.4783 2168.12
-161.159 83.4783 2168.12
-161.739 83.4783 2168.12
-162.319 83.4783 2168.12
-162.899 83.4783 2168.12
-163.478 83.4783 2168.12
-164.058 83.4783 2168.12
-164.638 83.4783 2168.12
-165.217 83.4783 2168.12
-165.797 83.4783 2168.12
-166.377 83.4783 2168.12
-166.957 83.4783 2168.12
-167.536 83.4783 2168.12
-168.116 83.4783 2168.12
-168.696 83.4783 2168.12
-170.182 83.7818 2176
-170.764 83.7818 2176
-171.345 83.7818 2176
-171.927 83.7818 2176
-172.509 83.7818 2176
-173.091 83.7818 2176
-173.673 83.7818 2176
-208.926 95.2066 2472.73
-209.587 95.2066 2472.73
-210.248 95.2066 2472.73
-244.424 106.175 2757.6
-256 109.714 2849.52
-256.762 109.714 2849.52
-264.078 111.845 2904.85
-261.538 110.769 2876.92
-262.308 110.769 2876.92
-263.077 110.769 2876.92
-263.846 110.769 2876.92
-266.28 111.304 2890.82
-267.053 111.304 2890.82
-278.209 114.627 2977.11
-279.005 114.627 2977.11
26.0932 83.1541 2144.8
25.5197 83.1541 2144.8
24.9462 83.1541 2144.8
24.3728 83.1541 2144.8
23.7993 83.1541 2144.8
23.4286 82.8571 2137.14
22.8571 82.8571 2137.14
22.2857 82.8571 2137.14
21.7143 82.8571 2137.14
21.1429 82.8571 2137.14
20.5714 82.8571 2137.14
20 82.8571 2137.14
19.2115 83.1541 2144.8
18.638 83.1541 2144.8
18.0645 83.1541 2144.8
12.4031 89.9225 2319.38
11.7829 89.9225 2319.38
11.1628 89.9225 2319.38
10.5426 89.9225 2319.38
9.92248 89.9225 2319.38
9.30233 89.9225 2319.38
8.68217 89.9225 2319.38
8.06202 89.9225 2319.38
7.44186 89.9225 2319.38
7.10425 89.5753 2310.42
6.48649 89.5753 2310.42
5.86873 89.5753 2310.42
5.25097 89.5753 2310.42
4.6332 89.5753 2310.42
4.01544 89.5753 2310.42
3.39768 89.5753 2310.42
2.77992 89.5753 2310.42
2.16216 89.5753 2310.42
1.5444 89.5753 2310.42
0.926641 89.5753 2310.42
0.30888 89.5753 2310.42
-0.30888 89.5753 2310.42
-0.926641 89.5753 2310.42
-0.91954 88.8889 2292.72
-1.53257 88.8889 2292.72
-2.14559 88.8889 2292.72
-2.44275 88.5496 2283.97
-3.05344 88.5496 2283.97
-3.66412 88.5496 2283.97
-4.27481 88.5496 2283.97
-4.8855 88.5496 2283.97
-5.49618 88.5496 2283.97
-6.10687 88.5496 2283.97
-6.71756 88.5496 2283.97
-7.32824 88.5496 2283.97
-8.27586 88.8889 2292.72
-9.57529 89.5753 2310.42
-10.1931 89.5753 2310.42
-10.8108 89.5753 2310.42
-11.4286 89.5753 2310.42
-12.0463 89.5753 2310.42
-12.6641 89.5753 2310.42
-13.2819 89.5753 2310.42
-13.8996 89.5753 2310.42
-14.5174 89.5753 2310.42
-15.1351 89.5753 2310.42
-15.7529 89.5753 2310.42
-16.3707 89.5753 2310.42
-16.9884 89.5753 2310.42
-17.6062 89.5753 2310.42
-17.0992 88.5496 2283.97
-17.7099 88.5496 2283.97
-18.3206 88.5496 2283.97
-18.9313 88.5496 2283.97
-19.542 88.5496 2283.97
-20.1527 88.5496 2283.97
-20.7634 88.5496 2283.97
-21.374 88.5496 2283.97
-21.9847 88.5496 2283.97
-22.5954 88.5496 2283.97
-23.2061 88.5496 2283.97
-23.8168 88.5496 2283.97
-24.4275 88.5496 2283.97
-25.0382 88.5496 2283.97
-25.6489 88.5496 2283.97
-26.2595 88.5496 2283.97
-26.8702 88.5496 2283.97
-27.4809 88.5496 2283.97
-28.0916 88.5496 2283.97
-28.7023 88.5496 2283.97
-29.313 88.5496 2283.97
-29.9237 88.5496 2283.97
-30.5344 88.5496 2283.97
-31.145 88.5496 2283.97
-31.7557 88.5496 2283.97
-32.3664 88.5496 2283.97
-32.9771 88.5496 2283.97
-33.5878 88.5496 2283.97
-34.1985 88.5496 2283.97
-34.8092 88.5496 2283.97
-35.4198 88.5496 2283.97
-36.0305 88.5496 2283.97
-36.6412 88.5496 2283.97
-37.2519 88.5496 2283.97
-37.8626 88.5496 2283.97
-38.4733 88.5496 2283.97
-39.084 88.5496 2283.97
-40.1533 88.8889 2292.72
-40.7663 88.8889 2292.72
-41.3793 88.8889 2292.72
-43.4109 89.9225 2319.38
-44.031 89.9225 2319.38
-44.6512 89.9225 2319.38
-45.2713 89.9225 2319.38
-45.8915 89.9225 2319.38
-46.5116 89.9225 2319.38
-47.1318 89.9225 2319.38
-47.7519 89.9225 2319.38
-48.3721 89.9225 2319.38
-48.9922 89.9225 2319.38
-49.6124 89.9225 2319.38
-50.2326 89.9225 2319.38
-50.8527 89.9225 2319.38
-51.4729 89.9225 2319.38
-52.093 89.9225 2319.38
-52.7132 89.9225 2319.38
-53.3333 89.9225 2319.38
-53.9535 89.9225 2319.38
-54.5736 89.9225 2319.38
-55.1938 89.9225 2319.38
-55.814 89.9225 2319.38
-56.4341 89.9225 2319.38
-71.1111 99.1453 2557.26
-71.7949 99.1453 2557.26
-72.4786 99.1453 2557.26
-73.1624 99.1453 2557.26
-73.8462 99.1453 2557.26
-74.5299 99.1453 2557.26
-75.2137 99.1453 2557.26
-75.8974 99.1453 2557.26
-76.5812 99.1453 2557.26
-77.265 99.1453 2557.26
-77.9487 99.1453 2557.26
-78.6325 99.1453 2557.26
-79.3162 99.1453 2557.26
-80 99.1453 2557.26
-80.6838 99.1453 2557.26
-81.3675 99.1453 2557.26
-82.0513 99.1453 2557.26
-82.735 99.1453 2557.26
-83.4188 99.1453 2557.26
-84.1026 99.1453 2557.26
-84.7863 99.1453 2557.26
-85.4701 99.1453 2557.26
-86.1538 99.1453 2557.26
-86.8376 99.1453 2557.26
-87.5214 99.1453 2557.26
-88.2051 99.1453 2557.26
-88.8889 99.1453 2557.26
-89.5726 99.1453 2557.26
-90.2564 99.1453 2557.26
-90.9402 99.1453 2557.26
-91.6239 99.1453 2557.26
-92.3077 99.1453 2557.26
-93.7339 99.5708 2568.24
-94.4206 99.5708 2568.24
-95.1073 99.5708 2568.24
-95.794 99.5708 2568.24
-96.4807 99.5708 2568.24
-97.1674 99.5708 2568.24
-97.8541 99.5708 2568.24
-98.5408 99.5708 2568.24
-99.2275 99.5708 2568.24
-99.9142 99.5708 2568.24
-100.601 99.5708 2568.24
-101.288 99.5708 2568.24
-101.974 99.5708 2568.24
-102.661 99.5708 2568.24
-103.348 99.5708 2568.24
-104.034 99.5708 2568.24
-104.721 99.5708 2568.24
-105.408 99.5708 2568.24
-106.094 99.5708 2568.24
-106.781 99.5708 2568.24
-107.468 99.5708 2568.24
-98.9388 94.6939 2442.45
-99.5918 94.6939 2442.45
-100.245 94.6939 2442.45
-100.898 94.6939 2442.45
-101.551 94.6939 2442.45
-102.204 94.6939 2442.45
-102.857 94.6939 2442.45
-103.51 94.6939 2442.45
-104.163 94.6939 2442.45
-104.816 94.6939 2442.45
-105.469 94.6939 2442.45
-106.122 94.6939 2442.45
-106.776 94.6939 2442.45
-107.429 94.6939 2442.45
-108.082 94.6939 2442.45
-109.508 95.082 2452.46
-110.164 95.082 2452.46
-110.82 95.082 2452.46
-111.475 95.082 2452.46
-112.131 95.082 2452.46
-112.787 95.082 2452.46
-113.443 95.082 2452.46
-114.098 95.082 2452.46
-114.754 95.082 2452.46
-115.41 95.082 2452.46
-116.066 95.082 2452.46
-116.721 95.082 2452.46
-117.377 95.082 2452.46
-118.033 95.082 2452.46
-118.689 95.082 2452.46
-119.344 95.082 2452.46
-120 95.082 2452.46
-118.219 93.9271 2422.67
-118.866 93.9271 2422.67
-119.514 93.9271 2422.67
-115.415 91.6996 2365.22
-116.047 91.6996 2365.22
-116.68 91.6996 2365.22
-117.312 91.6996 2365.22
-117.945 91.6996 2365.22
-118.577 91.6996 2365.22
-119.209 91.6996 2365.22
-119.842 91.6996 2365.22
-120.474 91.6996 2365.22
-121.107 91.6996 2365.22
-121.739 91.6996 2365.22
-122.372 91.6996 2365.22
-123.004 91.6996 2365.22
-123.636 91.6996 2365.22
-124.269 91.6996 2365.22
-124.901 91.6996 2365.22
-125.534 91.6996 2365.22
-126.166 91.6996 2365.22
-126.798 91.6996 2365.22
-127.431 91.6996 2365.22
-128.063 91.6996 2365.22
-128.696 91.6996 2365.22
-129.328 91.6996 2365.22
-129.96 91.6996 2365.22
-130.593 91.6996 2365.22
-131.225 91.6996 2365.22
-131.858 91.6996 2365.22
-132.49 91.6996 2365.22
-133.123 91.6996 2365.22
-133.755 91.6996 2365.22
-133.543 91.3386 2355.91
-134.173 91.3386 2355.91
-130.656 89.5753 2310.42
-131.274 89.5753 2310.42
-131.892 89.5753 2310.42
-132.51 89.5753 2310.42
-133.127 89.5753 2310.42
-130.494 88.2129 2275.29
-131.103 88.2129 2275.29
-131.711 88.2129 2275.29
-132.319 88.2129 2275.29
-132.928 88.2129 2275.29
-133.536 88.2129 2275.29
-134.144 88.2129 2275.29
-134.753 88.2129 2275.29
-135.361 88.2129 2275.29
-135.97 88.2129 2275.29
-136.578 88.2129 2275.29
-137.186 88.2129 2275.29
-137.795 88.2129 2275.29
-138.403 88.2129 2275.29
-139.011 88.2129 2275.29
-139.62 88.2129 2275.29
-140.228 88.2129 2275.29
-140.837 88.2129 2275.29
-141.445 88.2129 2275.29
-142.053 88.2129 2275.29
-142.662 88.2129 2275.29
-143.27 88.2129 2275.29
-143.878 88.2129 2275.29
-144.487 88.2129 2275.29
-145.095 88.2129 2275.29
-145.703 88.2129 2275.29
-146.312 88.2129 2275.29
-146.92 88.2129 2275.29
-147.529 88.2129 2275.29
-148.137 88.2129 2275.29
-161.606 93.1727 2403.21
-162.249 93.1727 2403.21
-162.892 93.1727 2403.21
-164.516 93.5484 2412.9
-170.206 95.4733 2462.55
-174 96.6667 2493.33
-174.667 96.6667 2493.33
-175.333 96.6667 2493.33
-176 96.6667 2493.33
-176.667 96.6667 2493.33
-177.333 96.6667 2493.33
-178 96.6667 2493.33
-144.928 84.058 2168.12
-145.507 84.058 2168.12
-146.087 84.058 2168.12
-146.667 84.058 2168.12
-147.246 84.058 2168.12
-147.826 84.058 2168.12
-148.406 84.058 2168.12
-148.986 84.058 2168.12
-149.565 84.058 2168.12
-150.145 84.058 2168.12
-150.725 84.058 2168.12
-151.304 84.058 2168.12
-151.884 84.058 2168.12
-152.464 84.058 2168.12
-153.043 84.058 2168.12
-153.623 84.058 2168.12
-154.203 84.058 2168.12
-154.783 84.058 2168.12
-155.362 84.058 2168.12
-155.942 84.058 2168.12
-156.522 84.058 2168.12
-157.101 84.058 2168.12
-157.681 84.058 2168.12
-158.261 84.058 2168.12
-158.841 84.058 2168.12
-159.42 84.058 2168.12
-160 84.058 2168.12
-160.58 84.058 2168.12
-161.159 84.058 2168.12
-161.739 84.058 2168.12
-162.319 84.058 2168.12
-162.899 84.058 2168.12
-163.478 84.058 2168.12
-164.058 84.058 2168.12
-164.638 84.058 2168.12
-166.109 84.3636 2176
-166.691 84.3636 2176
-167.273 84.3636 2176
-167.855 84.3636 2176
-168.436 84.3636 2176
-169.018 84.3636 2176
-169.6 84.3636 2176
-170.182 84.3636 2176
-170.764 84.3636 2176
-171.345 84.3636 2176
-171.927 84.3636 2176
-172.509 84.3636 2176
-173.091 84.3636 2176
-173.673 84.3636 2176
-208.926 95.8678 2472.73
-209.587 95.8678 2472.73
-243.687 106.912 2757.6
-244.424 106.912 2757.6
-254.408 109.953 2836.02
-255.166 109.953 2836.02
-255.924 109.953 2836.02
-256.682 109.953 2836.02
-252.71 108.411 2796.26
-253.458 108.411 2796.26
-254.206 108.411 2796.26
-254.953 108.411 2796.26
-265.385 111.538 2876.92
-261.232 109.953 2836.02
-261.991 109.953 2836.02
-262.749 109.953 2836.02
-263.507 109.953 2836.02
-262.642 109.434 2822.64
-263.396 109.434 2822.64
-264.151 109.434 2822.64
-264.906 109.434 2822.64
25.7143 83.4286 2137.14
25.1429 83.4286 2137.14
24.5714 83.4286 2137.14
24 83.4286 2137.14
23.4286 83.4286 2137.14
22.8571 83.4286 2137.14
22.2857 83.4286 2137.14
21.7143 83.4286 2137.14
21.1429 83.4286 2137.14
20.5714 83.4286 2137.14
20 83.4286 2137.14
19.4286 83.4286 2137.14
18.638 83.7276 2144.8
18.0645 83.7276 2144.8
12.4031 90.5426 2319.38
11.7829 90.5426 2319.38
11.1628 90.5426 2319.38
10.5426 90.5426 2319.38
9.92248 90.5426 2319.38
9.30233 90.5426 2319.38
8.68217 90.5426 2319.38
8.06202 90.5426 2319.38
7.44186 90.5426 2319.38
7.10425 90.1931 2310.42
6.48649 90.1931 2310.42
5.86873 90.1931 2310.42
5.25097 90.1931 2310.42
4.6332 90.1931 2310.42
4.01544 90.1931 2310.42
3.39768 90.1931 2310.42
2.77992 90.1931 2310.42
2.16216 90.1931 2310.42
1.5444 90.1931 2310.42
0.926641 90.1931 2310.42
0.30888 90.1931 2310.42
-0.30888 90.1931 2310.42
-0.926641 90.1931 2310.42
-0.91954 89.5019 2292.72
-1.53257 89.5019 2292.72
-2.14559 89.5019 2292.72
-2.44275 89.1603 2283.97
-3.05344 89.1603 2283.97
-3.66412 89.1603 2283.97
-4.27481 89.1603 2283.97
-4.8855 89.1603 2283.97
-5.49618 89.1603 2283.97
-6.10687 89.1603 2283.97
-6.71756 89.1603 2283.97
-7.66284 89.5019 2292.72
-8.27586 89.5019 2292.72
-8.88889 89.5019 2292.72
-9.50192 89.5019 2292.72
-10.1149 89.5019 2292.72
-10.728 89.5019 2292.72
-11.341 89.5019 2292.72
-11.954 89.5019 2292.72
-12.567 89.5019 2292.72
-13.1801 89.5019 2292.72
-13.7931 89.5019 2292.72
-14.4061 89.5019 2292.72
-15.0192 89.5019 2292.72
-15.6322 89.5019 2292.72
-16.2452 89.5019 2292.72
-16.8582 89.5019 2292.72
-17.4713 89.5019 2292.72
-17.3384 88.8213 2275.29
-17.9468 88.8213 2275.29
-18.5551 88.8213 2275.29
-19.1635 88.8213 2275.29
-19.7719 88.8213 2275.29
-20.3802 88.8213 2275.29
-20.9886 88.8213 2275.29
-21.597 88.8213 2275.29
-22.2053 88.8213 2275.29
-22.8137 88.8213 2275.29
-23.4221 88.8213 2275.29
-24.0304 88.8213 2275.29
-24.6388 88.8213 2275.29
-25.2471 88.8213 2275.29
-25.8555 88.8213 2275.29
-26.4639 88.8213 2275.29
-27.0722 88.8213 2275.29
-27.6806 88.8213 2275.29
-28.289 88.8213 2275.29
-28.8973 88.8213 2275.29
-29.5057 88.8213 2275.29
-30.1141 88.8213 2275.29
-30.7224 88.8213 2275.29
-31.3308 88.8213 2275.29
-31.9392 88.8213 2275.29
-32.5475 88.8213 2275.29
-33.1559 88.8213 2275.29
-33.7643 88.8213 2275.29
-34.3726 88.8213 2275.29
-34.981 88.8213 2275.29
-35.5894 88.8213 2275.29
-36.1977 88.8213 2275.29
-36.8061 88.8213 2275.29
-37.4144 88.8213 2275.29
-38.0228 88.8213 2275.29
-38.6312 88.8213 2275.29
-41.0811 90.1931 2310.42
-41.6988 90.1931 2310.42
-42.3166 90.1931 2310.42
-42.9344 90.1931 2310.42
-43.5521 90.1931 2310.42
-44.1699 90.1931 2310.42
-44.7876 90.1931 2310.42
-45.4054 90.1931 2310.42
-46.0232 90.1931 2310.42
-46.6409 90.1931 2310.42
-47.2587 90.1931 2310.42
-47.8764 90.1931 2310.42
-48.4942 90.1931 2310.42
-49.112 90.1931 2310.42
-49.7297 90.1931 2310.42
-50.3475 90.1931 2310.42
-50.9653 90.1931 2310.42
-51.583 90.1931 2310.42
-52.2008 90.1931 2310.42
-52.8185 90.1931 2310.42
-53.4363 90.1931 2310.42
-54.0541 90.1931 2310.42
-55.1938 90.5426 2319.38
-55.814 90.5426 2319.38
-56.4341 90.5426 2319.38
-71.1111 99.8291 2557.26
-71.7949 99.8291 2557.26
-72.4786 99.8291 2557.26
-73.1624 99.8291 2557.26
-73.8462 99.8291 2557.26
-74.5299 99.8291 2557.26
-75.2137 99.8291 2557.26
-75.8974 99.8291 2557.26
-76.5812 99.8291 2557.26
-77.265 99.8291 2557.26
-77.9487 99.8291 2557.26
-78.6325 99.8291 2557.26
-79.3162 99.8291 2557.26
-80 99.8291 2557.26
-80.6838 99.8291 2557.26
-81.3675 99.8291 2557.26
-82.0513 99.8291 2557.26
-82.735 99.8291 2557.26
-83.4188 99.8291 2557.26
-84.1026 99.8291 2557.26
-84.7863 99.8291 2557.26
-85.4701 99.8291 2557.26
-86.1538 99.8291 2557.26
-86.8376 99.8291 2557.26
-87.5214 99.8291 2557.26
-88.2051 99.8291 2557.26
-88.8889 99.8291 2557.26
-89.5726 99.8291 2557.26
-90.2564 99.8291 2557.26
-90.9402 99.8291 2557.26
-91.6239 99.8291 2557.26
-92.3077 99.8291 2557.26
-93.7339 100.258 2568.24
-94.4206 100.258 2568.24
-95.1073 100.258 2568.24
-95.794 100.258 2568.24
-96.4807 100.258 2568.24
-97.1674 100.258 2568.24
-97.8541 100.258 2568.24
-98.5408 100.258 2568.24
-99.2275 100.258 2568.24
-99.9142 100.258 2568.24
-100.601 100.258 2568.24
-101.288 100.258 2568.24
-101.974 100.258 2568.24
-102.661 100.258 2568.24
-103.348 100.258 2568.24
-104.034 100.258 2568.24
-104.721 100.258 2568.24
-105.408 100.258 2568.24
-106.094 100.258 2568.24
-106.781 100.258 2568.24
-107.468 100.258 2568.24
-98.9388 95.3469 2442.45
-99.5918 95.3469 2442.45
-100.245 95.3469 2442.45
-100.898 95.3469 2442.45
-101.551 95.3469 2442.45
-102.204 95.3469 2442.45
-102.857 95.3469 2442.45
-103.51 95.3469 2442.45
-104.163 95.3469 2442.45
-104.816 95.3469 2442.45
-105.469 95.3469 2442.45
-106.122 95.3469 2442.45
-106.776 95.3469 2442.45
-107.429 95.3469 2442.45
-108.082 95.3469 2442.45
-109.508 95.7377 2452.46
-110.164 95.7377 2452.46
-110.82 95.7377 2452.46
-111.475 95.7377 2452.46
-112.131 95.7377 2452.46
-112.787 95.7377 2452.46
-113.443 95.7377 2452.46
-114.098 95.7377 2452.46
-114.754 95.7377 2452.46
-115.41 95.7377 2452.46
-116.066 95.7377 2452.46
-116.721 95.7377 2452.46
-117.377 95.7377 2452.46
-118.033 95.7377 2452.46
-118.689 95.7377 2452.46
-119.344 95.7377 2452.46
-120 95.7377 2452.46
-120.656 95.7377 2452.46
-114.921 92.6984 2374.6
-115.556 92.6984 2374.6
-116.19 92.6984 2374.6
-116.825 92.6984 2374.6
-117.46 92.6984 2374.6
-118.095 92.6984 2374.6
-118.73 92.6984 2374.6
-119.365 92.6984 2374.6
-120 92.6984 2374.6
-120.635 92.6984 2374.6
-120.474 92.332 2365.22
-121.107 92.332 2365.22
-121.739 92.332 2365.22
-122.372 92.332 2365.22
-123.004 92.332 2365.22
-123.636 92.332 2365.22
-124.269 92.332 2365.22
-124.901 92.332 2365.22
-125.534 92.332 2365.22
-126.166 92.332 2365.22
-126.798 92.332 2365.22
-127.431 92.332 2365.22
-128.063 92.332 2365.22
-128.696 92.332 2365.22
-129.328 92.332 2365.22
-129.96 92.332 2365.22
-130.593 92.332 2365.22
-131.225 92.332 2365.22
-131.858 92.332 2365.22
-132.49 92.332 2365.22
-133.123 92.332 2365.22
-133.755 92.332 2365.22
-131.051 90.8949 2328.4
-131.673 90.8949 2328.4
-132.296 90.8949 2328.4
-132.918 90.8949 2328.4
-133.541 90.8949 2328.4
-130.076 89.1603 2283.97
-130.687 89.1603 2283.97
-131.298 89.1603 2283.97
-131.908 89.1603 2283.97
-132.519 89.1603 2283.97
-132.319 88.8213 2275.29
-132.928 88.8213 2275.29
-133.536 88.8213 2275.29
-134.144 88.8213 2275.29
-134.753 88.8213 2275.29
-135.361 88.8213 2275.29
-135.97 88.8213 2275.29
-136.578 88.8213 2275.29
-137.186 88.8213 2275.29
-137.795 88.8213 2275.29
-138.403 88.8213 2275.29
-139.011 88.8213 2275.29
-139.62 88.8213 2275.29
-140.228 88.8213 2275.29
-140.837 88.8213 2275.29
-141.445 88.8213 2275.29
-142.053 88.8213 2275.29
-142.662 88.8213 2275.29
-143.27 88.8213 2275.29
-143.878 88.8213 2275.29
-144.487 88.8213 2275.29
-145.095 88.8213 2275.29
-145.703 88.8213 2275.29
-146.312 88.8213 2275.29
-146.92 88.8213 2275.29
-147.529 88.8213 2275.29
-148.137 88.8213 2275.29
-148.745 88.8213 2275.29
-149.354 88.8213 2275.29
-164.858 94.5749 2422.67
-173.724 97.7406 2503.77
-174.393 97.7406 2503.77
-175.063 97.7406 2503.77
-175.732 97.7406 2503.77
-176.402 97.7406 2503.77
-177.071 97.7406 2503.77
-177.741 97.7406 2503.77
-178.41 97.7406 2503.77
-144.348 84.6377 2168.12
-144.928 84.6377 2168.12
-145.507 84.6377 2168.12
-146.087 84.6377 2168.12
-146.667 84.6377 2168.12
-147.246 84.6377 2168.12
-147.826 84.6377 2168.12
-148.406 84.6377 2168.12
-148.986 84.6377 2168.12
-149.565 84.6377 2168.12
-150.145 84.6377 2168.12
-150.725 84.6377 2168.12
-151.304 84.6377 2168.12
-151.884 84.6377 2168.12
-152.464 84.6377 2168.12
-153.043 84.6377 2168.12
-153.623 84.6377 2168.12
-154.203 84.6377 2168.12
-154.783 84.6377 2168.12
-155.362 84.6377 2168.12
-155.942 84.6377 2168.12
-156.522 84.6377 2168.12
-157.101 84.6377 2168.12
-157.681 84.6377 2168.12
-158.261 84.6377 2168.12
-158.841 84.6377 2168.12
-159.42 84.6377 2168.12
-160 84.6377 2168.12
-160.58 84.6377 2168.12
-161.159 84.6377 2168.12
-161.739 84.6377 2168.12
-162.319 84.6377 2168.12
-162.899 84.6377 2168.12
-164.364 84.9455 2176
-164.945 84.9455 2176
-165.527 84.9455 2176
-166.109 84.9455 2176
-166.691 84.9455 2176
-167.273 84.9455 2176
-167.855 84.9455 2176
-168.436 84.9455 2176
-169.018 84.9455 2176
-169.6 84.9455 2176
-170.182 84.9455 2176
-170.764 84.9455 2176
-171.345 84.9455 2176
-171.927 84.9455 2176
-172.509 84.9455 2176
-173.091 84.9455 2176
-173.673 84.9455 2176
-252.952 111.238 2849.52
-256.923 112.308 2876.92
-257.692 112.308 2876.92
-253.649 110.711 2836.02
-254.408 110.711 2836.02
-255.166 110.711 2836.02
-255.924 110.711 2836.02
-256.682 110.711 2836.02
-255.849 110.189 2822.64
-256.604 110.189 2822.64
-257.358 110.189 2822.64
-264.615 112.308 2876.92
-265.385 112.308 2876.92
-261.232 110.711 2836.02
-261.991 110.711 2836.02
-262.749 110.711 2836.02
-263.507 110.711 2836.02
-264.265 110.711 2836.02
-265.024 110.711 2836.02
-265.782 110.711 2836.02
-268.19 111.238 2849.52
25.1429 84 2137.14
24.5714 84 2137.14
24 84 2137.14
23.4286 84 2137.14
22.8571 84 2137.14
22.2857 84 2137.14
21.7143 84 2137.14
21.1429 84 2137.14
20.5714 84 2137.14
20 84 2137.14
19.4286 84 2137.14
18.638 84.3011 2144.8
18.0645 84.3011 2144.8
12.4031 91.1628 2319.38
11.7829 91.1628 2319.38
11.1628 91.1628 2319.38
10.5426 91.1628 2319.38
9.92248 91.1628 2319.38
9.30233 91.1628 2319.38
8.68217 91.1628 2319.38
8.06202 91.1628 2319.38
7.44186 91.1628 2319.38
6.82171 91.1628 2319.38
6.20155 91.1628 2319.38
5.5814 91.1628 2319.38
5.25097 90.8108 2310.42
4.6332 90.8108 2310.42
4.01544 90.8108 2310.42
3.39768 90.8108 2310.42
2.77992 90.8108 2310.42
2.16216 90.8108 2310.42
1.5444 90.8108 2310.42
0.926641 90.8108 2310.42
0.30888 90.8108 2310.42
-0.30888 90.8108 2310.42
-0.926641 90.8108 2310.42
-0.91954 90.1149 2292.72
-1.53257 90.1149 2292.72
-2.14559 90.1149 2292.72
-2.44275 89.771 2283.97
-3.05344 89.771 2283.97
-3.66412 89.771 2283.97
-4.27481 89.771 2283.97
-4.8855 89.771 2283.97
-5.49618 89.771 2283.97
-6.43678 90.1149 2292.72
-7.04981 90.1149 2292.72
-7.66284 90.1149 2292.72
-8.27586 90.1149 2292.72
-8.88889 90.1149 2292.72
-9.50192 90.1149 2292.72
-10.1149 90.1149 2292.72
-10.728 90.1149 2292.72
-11.341 90.1149 2292.72
-11.954 90.1149 2292.72
-12.567 90.1149 2292.72
-13.1801 90.1149 2292.72
-13.7931 90.1149 2292.72
-14.4061 90.1149 2292.72
-15.0192 90.1149 2292.72
-15.6322 90.1149 2292.72
-16.2452 90.1149 2292.72
-16.8582 90.1149 2292.72
-17.4713 90.1149 2292.72
-17.3384 89.4297 2275.29
-17.9468 89.4297 2275.29
-18.5551 89.4297 2275.29
-19.1635 89.4297 2275.29
-19.7719 89.4297 2275.29
-20.3802 89.4297 2275.29
-20.9886 89.4297 2275.29
-21.597 89.4297 2275.29
-22.2053 89.4297 2275.29
-22.8137 89.4297 2275.29
-23.4221 89.4297 2275.29
-24.0304 89.4297 2275.29
-24.6388 89.4297 2275.29
-25.2471 89.4297 2275.29
-25.8555 89.4297 2275.29
-26.4639 89.4297 2275.29
-27.0722 89.4297 2275.29
-27.6806 89.4297 2275.29
-28.289 89.4297 2275.29
-28.8973 89.4297 2275.29
-29.5057 89.4297 2275.29
-30.1141 89.4297 2275.29
-30.7224 89.4297 2275.29
-31.3308 89.4297 2275.29
-31.9392 89.4297 2275.29
-32.5475 89.4297 2275.29
-33.1559 89.4297 2275.29
-33.7643 89.4297 2275.29
-34.3726 89.4297 2275.29
-34.981 89.4297 2275.29
-35.5894 89.4297 2275.29
-36.1977 89.4297 2275.29
-36.8061 89.4297 2275.29
-37.4144 89.4297 2275.29
-38.0228 89.4297 2275.29
-38.6312 89.4297 2275.29
-41.0811 90.8108 2310.42
-41.6988 90.8108 2310.42
-42.3166 90.8108 2310.42
-42.9344 90.8108 2310.42
-43.5521 90.8108 2310.42
-44.1699 90.8108 2310.42
-44.7876 90.8108 2310.42
-45.4054 90.8108 2310.42
-46.0232 90.8108 2310.42
-46.6409 90.8108 2310.42
-47.2587 90.8108 2310.42
-47.8764 90.8108 2310.42
-48.4942 90.8108 2310.42
-49.112 90.8108 2310.42
-49.7297 90.8108 2310.42
-50.3475 90.8108 2310.42
-50.9653 90.8108 2310.42
-51.583 90.8108 2310.42
-52.2008 90.8108 2310.42
-52.8185 90.8108 2310.42
-53.4363 90.8108 2310.42
-54.0541 90.8108 2310.42
-54.6718 90.8108 2310.42
-55.814 91.1628 2319.38
-56.4341 91.1628 2319.38
-71.1111 100.513 2557.26
-71.7949 100.513 2557.26
-72.4786 100.513 2557.26
-73.1624 100.513 2557.26
-73.8462 100.513 2557.26
-74.5299 100.513 2557.26
-75.2137 100.513 2557.26
-75.8974 100.513 2557.26
-76.5812 100.513 2557.26
-77.265 100.513 2557.26
-77.9487 100.513 2557.26
-78.6325 100.513 2557.26
-79.3162 100.513 2557.26
-80 100.513 2557.26
-80.6838 100.513 2557.26
-81.3675 100.513 2557.26
-82.0513 100.513 2557.26
-82.735 100.513 2557.26
-83.4188 100.513 2557.26
-84.1026 100.513 2557.26
-84.7863 100.513 2557.26
-85.4701 100.513 2557.26
-86.1538 100.513 2557.26
-86.8376 100.513 2557.26
-87.5214 100.513 2557.26
-88.2051 100.513 2557.26
-88.8889 100.513 2557.26
-89.5726 100.513 2557.26
-90.2564 100.513 2557.26
-90.9402 100.513 2557.26
-91.6239 100.513 2557.26
-92.3077 100.513 2557.26
-92.9915 100.513 2557.26
-94.4206 100.944 2568.24
-95.1073 100.944 2568.24
-95.794 100.944 2568.24
-96.4807 100.944 2568.24
-97.1674 100.944 2568.24
-97.8541 100.944 2568.24
-98.5408 100.944 2568.24
-99.2275 100.944 2568.24
-99.9142 100.944 2568.24
-100.601 100.944 2568.24
-101.288 100.944 2568.24
-101.974 100.944 2568.24
-102.661 100.944 2568.24
-103.348 100.944 2568.24
-104.034 100.944 2568.24
-104.721 100.944 2568.24
-105.408 100.944 2568.24
-106.094 100.944 2568.24
-106.781 100.944 2568.24
-107.468 100.944 2568.24
-107.35 100.513 2557.26
-108.034 100.513 2557.26
-108.718 100.513 2557.26
-109.402 100.513 2557.26
-101.551 96 2442.45
-102.204 96 2442.45
-102.857 96 2442.45
-103.51 96 2442.45
-104.163 96 2442.45
-104.816 96 2442.45
-105.469 96 2442.45
-106.122 96 2442.45
-106.776 96 2442.45
-107.429 96 2442.45
-108.082 96 2442.45
-109.508 96.3934 2452.46
-110.164 96.3934 2452.46
-110.82 96.3934 2452.46
-111.475 96.3934 2452.46
-112.131 96.3934 2452.46
-112.787 96.3934 2452.46
-113.443 96.3934 2452.46
-114.098 96.3934 2452.46
-114.754 96.3934 2452.46
-115.41 96.3934 2452.46
-116.066 96.3934 2452.46
-116.721 96.3934 2452.46
-117.377 96.3934 2452.46
-118.033 96.3934 2452.46
-118.689 96.3934 2452.46
-119.344 96.3934 2452.46
-120 96.3934 2452.46
-120.656 96.3934 2452.46
-115.697 93.7052 2384.06
-116.335 93.7052 2384.06
-116.972 93.7052 2384.06
-117.61 93.7052 2384.06
-118.247 93.7052 2384.06
-118.884 93.7052 2384.06
-119.522 93.7052 2384.06
-120.159 93.7052 2384.06
-120.797 93.7052 2384.06
-121.434 93.7052 2384.06
-122.072 93.7052 2384.06
-122.709 93.7052 2384.06
-123.347 93.7052 2384.06
-123.175 93.3333 2374.6
-123.81 93.3333 2374.6
-123.636 92.9644 2365.22
-124.269 92.9644 2365.22
-124.901 92.9644 2365.22
-125.534 92.9644 2365.22
-126.166 92.9644 2365.22
-126.798 92.9644 2365.22
-127.431 92.9644 2365.22
-128.063 92.9644 2365.22
-128.696 92.9644 2365.22
-129.328 92.9644 2365.22
-129.96 92.9644 2365.22
-130.593 92.9644 2365.22
-131.225 92.9644 2365.22
-131.858 92.9644 2365.22
-132.49 92.9644 2365.22
-133.123 92.9644 2365.22
-133.755 92.9644 2365.22
-131.051 91.5175 2328.4
-131.673 91.5175 2328.4
-132.296 91.5175 2328.4
-132.918 91.5175 2328.4
-132.713 91.1628 2319.38
-133.333 91.1628 2319.38
-133.953 91.1628 2319.38
-134.574 91.1628 2319.38
-135.194 91.1628 2319.38
-135.814 91.1628 2319.38
-132.319 89.4297 2275.29
-132.928 89.4297 2275.29
-133.536 89.4297 2275.29
-134.144 89.4297 2275.29
-134.753 89.4297 2275.29
-135.361 89.4297 2275.29
-135.97 89.4297 2275.29
-136.578 89.4297 2275.29
-137.186 89.4297 2275.29
-137.795 89.4297 2275.29
-138.403 89.4297 2275.29
-139.011 89.4297 2275.29
-139.62 89.4297 2275.29
-140.228 89.4297 2275.29
-140.837 89.4297 2275.29
-141.445 89.4297 2275.29
-142.053 89.4297 2275.29
-142.662 89.4297 2275.29
-143.27 89.4297 2275.29
-143.878 89.4297 2275.29
-144.487 89.4297 2275.29
-145.095 89.4297 2275.29
-145.703 89.4297 2275.29
-146.312 89.4297 2275.29
-146.92 89.4297 2275.29
-147.529 89.4297 2275.29
-148.137 89.4297 2275.29
-148.745 89.4297 2275.29
-149.354 89.4297 2275.29
-149.962 89.4297 2275.29
-150.57 89.4297 2275.29
-174.393 98.41 2503.77
-175.063 98.41 2503.77
-175.732 98.41 2503.77
-176.402 98.41 2503.77
-178.151 98.8235 2514.29
-178.824 98.8235 2514.29
-143.768 85.2174 2168.12
-144.348 85.2174 2168.12
-144.928 85.2174 2168.12
-145.507 85.2174 2168.12
-146.087 85.2174 2168.12
-146.667 85.2174 2168.12
-147.246 85.2174 2168.12
-147.826 85.2174 2168.12
-148.406 85.2174 2168.12
-148.986 85.2174 2168.12
-149.565 85.2174 2168.12
-150.145 85.2174 2168.12
-150.725 85.2174 2168.12
-151.304 85.2174 2168.12
-151.884 85.2174 2168.12
-152.464 85.2174 2168.12
-153.043 85.2174 2168.12
-153.623 85.2174 2168.12
-154.203 85.2174 2168.12
-154.783 85.2174 2168.12
-155.362 85.2174 2168.12
-155.942 85.2174 2168.12
-156.522 85.2174 2168.12
-157.101 85.2174 2168.12
-157.681 85.2174 2168.12
-158.261 85.2174 2168.12
-158.841 85.2174 2168.12
-159.42 85.2174 2168.12
-160 85.2174 2168.12
-160.58 85.2174 2168.12
-161.159 85.2174 2168.12
-161.739 85.2174 2168.12
-162.319 85.2174 2168.12
-162.899 85.2174 2168.12
-164.364 85.5273 2176
-164.945 85.5273 2176
-165.527 85.5273 2176
-166.109 85.5273 2176
-166.691 85.5273 2176
-167.273 85.5273 2176
-167.855 85.5273 2176
-168.436 85.5273 2176
-169.018 85.5273 2176
-169.6 85.5273 2176
-170.182 85.5273 2176
-170.764 85.5273 2176
-171.345 85.5273 2176
-171.927 85.5273 2176
-172.509 85.5273 2176
-173.091 85.5273 2176
-173.673 85.5273 2176
-208.926 97.1901 2472.73
-209.587 97.1901 2472.73
-210.248 97.1901 2472.73
-252.075 110.943 2822.64
-252.83 110.943 2822.64
-253.585 110.943 2822.64
-254.34 110.943 2822.64
-255.094 110.943 2822.64
-255.849 110.943 2822.64
-256.604 110.943 2822.64
-257.358 110.943 2822.64
-266.28 113.623 2890.82
-262.095 112 2849.52
-262.857 112 2849.52
-263.619 112 2849.52
-264.381 112 2849.52
-265.143 112 2849.52
-265.905 112 2849.52
-266.667 112 2849.52
-270.769 113.077 2876.92
-271.538 113.077 2876.92
24.7687 84.2705 2129.54
24 84.5714 2137.14
23.4286 84.5714 2137.14
22.8571 84.5714 2137.14
22.2857 84.5714 2137.14
21.7143 84.5714 2137.14
21.1429 84.5714 2137.14
20.5714 84.5714 2137.14
20 84.5714 2137.14
19.4286 84.5714 2137.14
18.638 84.8746 2144.8
18.0645 84.8746 2144.8
17.491 84.8746 2144.8
11.7829 91.7829 2319.38
11.1628 91.7829 2319.38
10.5426 91.7829 2319.38
9.92248 91.7829 2319.38
9.30233 91.7829 2319.38
8.68217 91.7829 2319.38
8.06202 91.7829 2319.38
7.44186 91.7829 2319.38
6.82171 91.7829 2319.38
6.20155 91.7829 2319.38
5.5814 91.7829 2319.38
5.25097 91.4286 2310.42
4.6332 91.4286 2310.42
4.01544 91.4286 2310.42
3.39768 91.4286 2310.42
2.77992 91.4286 2310.42
2.16216 91.4286 2310.42
1.5444 91.4286 2310.42
0.926641 91.4286 2310.42
0.30888 91.4286 2310.42
-0.30888 91.4286 2310.42
-0.926641 91.4286 2310.42
-1.5444 91.4286 2310.42
-2.16216 91.4286 2310.42
-2.77992 91.4286 2310.42
-2.44275 90.3817 2283.97
-3.05344 90.3817 2283.97
-3.66412 90.3817 2283.97
-4.27481 90.3817 2283.97
-4.8855 90.3817 2283.97
-5.49618 90.3817 2283.97
-6.43678 90.728 2292.72
-7.04981 90.728 2292.72
-7.66284 90.728 2292.72
-8.27586 90.728 2292.72
-8.88889 90.728 2292.72
-9.50192 90.728 2292.72
-10.1149 90.728 2292.72
-10.728 90.728 2292.72
-11.341 90.728 2292.72
-11.954 90.728 2292.72
-12.567 90.728 2292.72
-13.1801 90.728 2292.72
-13.7931 90.728 2292.72
-14.4061 90.728 2292.72
-15.0192 90.728 2292.72
-15.6322 90.728 2292.72
-16.2452 90.728 2292.72
-16.8582 90.728 2292.72
-17.4713 90.728 2292.72
-17.3384 90.038 2275.29
-17.9468 90.038 2275.29
-18.5551 90.038 2275.29
-19.1635 90.038 2275.29
-19.7719 90.038 2275.29
-20.3802 90.038 2275.29
-20.9886 90.038 2275.29
-21.597 90.038 2275.29
-22.2053 90.038 2275.29
-22.8137 90.038 2275.29
-23.4221 90.038 2275.29
-24.0304 90.038 2275.29
-24.6388 90.038 2275.29
-25.2471 90.038 2275.29
-25.8555 90.038 2275.29
-26.4639 90.038 2275.29
-27.0722 90.038 2275.29
-27.6806 90.038 2275.29
-28.289 90.038 2275.29
-28.8973 90.038 2275.29
-29.5057 90.038 2275.29
-30.1141 90.038 2275.29
-30.7224 90.038 2275.29
-31.3308 90.038 2275.29
-31.9392 90.038 2275.29
-32.5475 90.038 2275.29
-33.1559 90.038 2275.29
-33.7643 90.038 2275.29
-34.3726 90.038 2275.29
-34.981 90.038 2275.29
-35.5894 90.038 2275.29
-36.1977 90.038 2275.29
-37.7011 90.728 2292.72
-38.3142 90.728 2292.72
-38.9272 90.728 2292.72
-39.5402 90.728 2292.72
-40.1533 90.728 2292.72
-40.7663 90.728 2292.72
-41.3793 90.728 2292.72
-41.9923 90.728 2292.72
-43.5521 91.4286 2310.42
-44.1699 91.4286 2310.42
-44.7876 91.4286 2310.42
-45.4054 91.4286 2310.42
-46.0232 91.4286 2310.42
-46.6409 91.4286 2310.42
-47.2587 91.4286 2310.42
-47.8764 91.4286 2310.42
-48.4942 91.4286 2310.42
-49.112 91.4286 2310.42
-49.7297 91.4286 2310.42
-50.3475 91.4286 2310.42
-50.9653 91.4286 2310.42
-51.583 91.4286 2310.42
-52.2008 91.4286 2310.42
-52.8185 91.4286 2310.42
-53.4363 91.4286 2310.42
-54.0541 91.4286 2310.42
-54.6718 91.4286 2310.42
-55.814 91.7829 2319.38
-56.4341 91.7829 2319.38
-71.1111 101.197 2557.26
-71.7949 101.197 2557.26
-72.4786 101.197 2557.26
-73.1624 101.197 2557.26
-73.8462 101.197 2557.26
-74.5299 101.197 2557.26
-75.2137 101.197 2557.26
-75.8974 101.197 2557.26
-76.5812 101.197 2557.26
-77.265 101.197 2557.26
-77.9487 101.197 2557.26
-78.6325 101.197 2557.26
-79.3162 101.197 2557.26
-80 101.197 2557.26
-80.6838 101.197 2557.26
-81.3675 101.197 2557.26
-82.0513 101.197 2557.26
-82.735 101.197 2557.26
-83.4188 101.197 2557.26
-84.1026 101.197 2557.26
-84.7863 101.197 2557.26
-85.4701 101.197 2557.26
-86.1538 101.197 2557.26
-86.8376 101.197 2557.26
-87.5214 101.197 2557.26
-88.2051 101.197 2557.26
-88.8889 101.197 2557.26
-89.5726 101.197 2557.26
-90.2564 101.197 2557.26
-90.9402 101.197 2557.26
-91.6239 101.197 2557.26
-92.3077 101.197 2557.26
-92.9915 101.197 2557.26
-94.4206 101.631 2568.24
-95.1073 101.631 2568.24
-95.794 101.631 2568.24
-96.4807 101.631 2568.24
-97.1674 101.631 2568.24
-97.8541 101.631 2568.24
-98.5408 101.631 2568.24
-99.2275 101.631 2568.24
-99.9142 101.631 2568.24
-100.601 101.631 2568.24
-101.288 101.631 2568.24
-101.974 101.631 2568.24
-102.661 101.631 2568.24
-103.348 101.631 2568.24
-104.034 101.631 2568.24
